# .PCD v0.7 - Point Cloud Data file format
VERSION 0.7
FIELDS x y z
SIZE 4 4 4
TYPE F F F
COUNT 1 1 1
WIDTH 889
HEIGHT 1
VIEWPOINT 0 0 0 1 0 0 0
POINTS 889
DATA ascii
-9.796875 -0.03125 -5.447998
-9.8125 -0.03125 -5.4389992
-9.796875 -0.03125 -5.4139977
-9.8242188 0.015625 -5.4217491
-9.828125 0.0625 -5.4209976
-9.8125 -0.03125 -5.3670006
-9.875 0.03125 -5.3989983
-9.828125 0.010416667 -5.3703332
-9.78125 -0.03125 -5.3419991
-9.828125 0.015625 -5.3257494
-9.8125 -0.03125 -5.2859993
-9.875 0 -5.2719994
-9.828125 0.020833334 -5.2743325
-9.859375 0.0625 -5.2959976
-9.8125 -0.03125 -5.2389984
-9.78125 -0.03125 -5.2630005
-9.875 0 -5.2270012
-9.8359375 0.015625 -5.2299995
-9.8125 0.0625 -5.2210007
-9.796875 -0.03125 -5.2089996
-9.875 0.03125 -5.1829987
-9.828125 0.010416667 -5.195333
-9.8125 -0.03125 -5.1599998
-9.796875 -0.03125 -5.132
-9.875 0.03125 -5.1409988
-9.8359375 0.015625 -5.1539993
-9.828125 0.0625 -5.1650009
-9.796875 0.0625 -5.1459999
-9.8125 -0.03125 -5.0919991
-9.8312502 0.0125 -5.1049995
-9.828125 0.0625 -5.0970001
-9.890625 -0.03125 -5.0519981
-9.8125 -0.03125 -5.0540009
-9.78125 -0.03125 -5.0750008
-9.828125 0.020833334 -5.0593324
-9.828125 0.0625 -5.0550003
-9.796875 -0.03125 -5.0219994
-9.890625 0 -5.0109978
-9.828125 0.010416667 -5.0113335
-9.828125 0.0625 -5.0219994
-9.8125 -0.03125 -4.9829979
-9.78125 -0.03125 -4.9599991
-9.890625 0 -4.9659996
-9.84375 0.020833334 -4.9696655
-9.875 0.0625 -4.973999
-9.796875 -0.03125 -4.9139977
-9.890625 0.03125 -4.9230003
-9.8242188 0.015625 -4.9322481
-9.859375 0.0625 -4.9319992
-9.8125 -0.03125 -4.875
-9.890625 0.03125 -4.8789978
-9.8374996 0.0125 -4.8789992
-9.828125 0.0625 -4.8999977
-9.828125 -0.03125 -4.8320007
-9.796875 -0.03125 -4.8499985
-9.875 0.03125 -4.8304996
-9.84375 0.015625 -4.8244991
-9.921875 0.0625 -4.848999
-9.828125 0.0625 -4.8239975
-9.890625 -0.03125 -4.7939987
-9.8125 -0.03125 -4.7869987
-9.8398438 0.015625 -4.7909994
-9.828125 -0.03125 -4.7259979
-9.796875 -0.03125 -4.75
-9.90625 0 -4.75
-9.875 0.03125 -4.7589989
-9.84375 0.010416667 -4.7459998
-9.8125 -0.03125 -4.6959991
-9.8828125 0.015625 -4.6999989
-9.8359375 0 -4.704998
-9.859375 0.0625 -4.7034988
-9.828125 0.0625 -4.6809998
-9.8125 -0.03125 -4.6669998
-9.796875 -0.03125 -4.6499977
-9.8828125 0.015625 -4.661499
-9.84375 0.010416667 -4.658999
-9.8125 0.09375 -4.6629982
-9.828125 -0.03125 -4.6056657
-9.875 0.03125 -4.6084995
-9.84375 0 -4.605999
-9.859375 0.0625 -4.6194992
-9.8125 0.0625 -4.6259995
-9.875 -0.03125 -4.5699997
-9.828125 -0.03125 -4.5639992
-9.78125 -0.03125 -4.5589981
-9.875 0.03125 -4.5610008
-9.84375 0.010416667 -4.566999
-9.859375 0.0625 -4.5769997
-9.859375 0.09375 -4.5550003
-9.890625 -0.03125 -4.5379982
-9.8203125 -0.03125 -4.5205002
-9.880208 0.03125 -4.5316658
-9.84375 0 -4.526001
-9.8671875 0.0625 -4.5054989
-9.90625 -0.03125 -4.4949989
-9.8359375 -0.03125 -4.4839993
-9.8812504 0.018750001 -4.4821997
-9.84375 0 -4.4675007
-9.875 0.0625 -4.4694996
-9.875 -0.0625 -4.4500008
-9.8203125 -0.03125 -4.4264984
-9.921875 0 -4.4510002
-9.880208 0.010416667 -4.4283333
-9.84375 0.015625 -4.427
-9.8671875 0.0625 -4.4324989
-9.828125 0.0625 -4.4290009
-9.890625 -0.03125 -4.3719978
-9.8359375 -0.03125 -4.3904991
-9.90625 0 -4.4099998
-9.8781252 0.018750001 -4.3841996
-9.84375 0.015625 -4.3774986
-9.8671875 0.0625 -4.3824997
-9.828125 -0.03125 -4.3419991
-9.796875 -0.03125 -4.3260002
-9.90625 0.03125 -4.3325005
-9.875 0.015625 -4.3439999
-9.84375 0 -4.3400002
-9.859375 0.0625 -4.3610001
-9.859375 0.09375 -4.3390007
-9.90625 -0.03125 -4.2819977
-9.838542 -0.03125 -4.292666
-9.90625 0.03125 -4.2859993
-9.8781252 0.0125 -4.2961998
-9.869792 0.0625 -4.3073325
-9.90625 -0.03125 -4.237999
-9.890625 -0.03125 -4.2529984
-9.828125 -0.03125 -4.2550011
-9.78125 -0.03125 -4.2469978
-9.885417 0.020833334 -4.2559991
-9.84375 0 -4.25
-9.90625 0.0625 -4.2449989
-9.8671875 0.0625 -4.2559986
-9.8125 0.09375 -4.2340012
-9.838542 -0.03125 -4.2029991
-9.90625 0 -4.1959991
-9.880208 0.015625 -4.212666
-9.880208 0.0625 -4.1979995
-9.828125 -0.03125 -4.1650009
-9.911458 0.010416667 -4.1583328
-9.875 0.020833334 -4.1569991
-9.84375 0 -4.1609993
-9.875 0.0625 -4.1639991
-9.833333 -0.03125 -4.1169991
-9.9140625 0.015625 -4.1069984
-9.8812504 0.0125 -4.1173997
-9.859375 0.0625 -4.1189995
-9.875 0.09375 -4.125
-9.8828125 -0.03125 -4.0654984
-9.828125 -0.03125 -4.0789986
-9.921875 0.03125 -4.0719986
-9.8867188 0.0234375 -4.0682487
-9.8359375 0.03125 -4.0734978
-9.875 0.0625 -4.0744991
-9.90625 -0.03125 -4.026001
-9.84375 -0.03125 -4.032999
-9.9140625 0.03125 -4.027998
-9.8789062 0.0078125 -4.0277491
-9.875 0.0625 -4.0369987
-9.859375 0.09375 -4.0209999
-9.921875 -0.03125 -3.9829979
-9.828125 -0.03125 -3.9829991
-9.90625 0.015625 -3.9859982
-9.880208 0.015625 -3.9766667
-9.890625 0.0625 -3.9864998
-9.84375 -0.03125 -3.9319992
-9.911458 0.010416667 -3.9386647
-9.885417 0.020833334 -3.9403331
-9.869792 0.0625 -3.9303334
-9.838542 -0.03125 -3.8866653
-9.9140625 0 -3.9019985
-9.8861609 0.022321429 -3.8949993
-9.890625 0.0625 -3.887001
-9.90625 -0.03125 -3.8619995
-9.84375 -0.03125 -3.8470001
-9.921875 0.015625 -3.8435001
-9.8828125 0.015625 -3.8464992
-9.875 0.0625 -3.8439991
-9.84375 -0.03125 -3.8055
-9.9140625 0.015625 -3.8014984
-9.8812504 0.018750001 -3.8022003
-9.796875 0 -3.8029976
-9.875 0.09375 -3.8169975
-9.875 -0.03125 -3.7630005
-9.8359375 -0.03125 -3.7519989
-9.921875 0.03125 -3.7549999
-9.8867188 0.015625 -3.7547493
-9.84375 0.03125 -3.7469978
-9.890625 0.0625 -3.7654991
-9.921875 -0.03125 -3.7280006
-9.84375 -0.03125 -3.7080002
-9.921875 0 -3.7099991
-9.8867188 0.0234375 -3.7089996
-9.90625 0.0625 -3.6959991
-9.8828125 0.0625 -3.7245007
-9.859375 0.09375 -3.7089996
-9.921875 -0.03125 -3.6669998
-9.833333 -0.03125 -3.6726658
-9.953125 0 -3.6860008
-9.90625 0.03125 -3.6779976
-9.8880205 0.015625 -3.6664989
-9.90625 0.0625 -3.6679993
-9.84375 -0.03125 -3.625
-9.953125 0 -3.6234989
-9.9140625 0.015625 -3.6184998
-9.8843746 0.018750001 -3.6219993
-9.90625 0.0625 -3.6429977
-9.890625 0.0625 -3.618
-9.875 -0.03125 -3.5830002
-9.8125 -0.03125 -3.5719986
-9.953125 0.015625 -3.5769997
-9.921875 0.03125 -3.5599976
-9.885417 0.010416667 -3.584666
-9.84375 0.03125 -3.5789986
-9.90625 0.0625 -3.5859985
-9.890625 0.0625 -3.5620003
-9.8359375 -0.03125 -3.5279999
-9.953125 0.015625 -3.5199986
-9.90625 0.03125 -3.5270004
-9.8843746 0.0125 -3.5373993
-9.885417 0.0625 -3.5256665
-9.921875 -0.0625 -3.4710007
-9.921875 -0.03125 -3.473999
-9.84375 -0.03125 -3.4869995
-9.9140625 0.03125 -3.4782495
-9.890625 0.020833334 -3.4966648
-9.9375 -0.03125 -3.4319992
-9.875 -0.03125 -3.4599991
-9.828125 -0.03125 -3.4445
-9.911458 0.020833334 -3.4433327
-9.8828125 0 -3.4484997
-9.90625 0.0625 -3.4389992
-9.875 -0.03125 -3.3759995
-9.84375 -0.03125 -3.4029999
-9.9609375 0 -3.3944988
-9.916667 0.020833334 -3.3986652
-9.885417 0.010416667 -3.4009998
-9.9140625 0.0625 -3.407999
-9.875 0.09375 -3.4039993
-9.921875 -0.03125 -3.3499985
-9.890625 -0.03125 -3.348999
-9.828125 -0.03125 -3.3460007
-9.953125 0.03125 -3.3689995
-9.90625 0.015625 -3.3610001
-9.890625 0.03125 -3.362999
-9.90625 0.0625 -3.3404999
-9.84375 -0.03125 -3.3050003
-9.953125 0 -3.3206661
-9.9140625 0.03125 -3.3029976
-9.890625 0.0078125 -3.3117495
-9.90625 0.0625 -3.3180008
-9.875 0.09375 -3.2939987
-9.921875 -0.03125 -3.2819977
-9.875 -0.03125 -3.2649994
-9.953125 0.03125 -3.2609997
-9.90625 0.03125 -3.2684994
-9.890625 0.010416667 -3.2646663
-9.90625 0.0625 -3.2589989
-9.9375 -0.03125 -3.2080002
-9.8828125 -0.03125 -3.2224998
-9.84375 -0.03125 -3.2329979
-9.953125 0.03125 -3.2299995
-9.921875 0.03125 -3.2140007
-9.890625 0.020833334 -3.2186673
-9.90625 0.0625 -3.2215004
-9.9375 -0.03125 -3.1769981
-9.8828125 -0.03125 -3.1669998
-9.953125 0.03125 -3.184
-9.9101562 0.0078125 -3.1747494
-9.890625 0 -3.1870003
-9.90625 0.0625 -3.151001
-9.96875 -0.03125 -3.137001
-9.890625 -0.03125 -3.1279984
-9.84375 -0.03125 -3.1199989
-9.953125 0.015625 -3.1214981
-9.9179688 0.03125 -3.1292486
-9.890625 0 -3.1219997
-9.9140625 0.0625 -3.1369991
-9.921875 -0.03125 -3.0909996
-9.875 -0.03125 -3.0804977
-9.96875 0.015625 -3.0799999
-9.9156246 0.018750001 -3.0763993
-9.890625 0 -3.1009979
-9.90625 0.0625 -3.0879993
-9.9375 -0.03125 -3.0200005
-9.890625 -0.03125 -3.0419998
-9.96875 0 -3.0559998
-9.9156246 0.0125 -3.0397987
-9.921875 0.0625 -3.0389977
-9.875 -0.03125 -2.9799995
-9.84375 -0.03125 -3.0060005
-9.958333 0.03125 -2.9929988
-9.9179688 0.015625 -2.9867496
-9.890625 0.015625 -3.0054989
-9.90625 0.0625 -3.0130005
-9.890625 0.09375 -2.9850006
-9.875 -0.03125 -2.9529991
-9.9609375 0.015625 -2.9404984
-9.9140625 0.015625 -2.9502497
-9.890625 0 -2.9269981
-9.921875 0.0625 -2.9449997
-9.96875 -0.03125 -2.8810005
-9.875 -0.03125 -2.8909988
-9.953125 0.03125 -2.906498
-9.921875 0.020833334 -2.9083316
-9.885417 0.020833334 -2.891
-9.921875 0.0625 -2.8999977
-9.96875 -0.03125 -2.8400002
-9.890625 -0.03125 -2.8570004
-9.9609375 0.015625 -2.8614998
-9.916667 0.015625 -2.8573334
-9.921875 0.0625 -2.8479996
-9.890625 0.21875 -2.8390007
-9.875 0.3125 -2.8400002
-10.1875 -0.34375 -2.7929993
-10.171875 -0.28125 -2.8009987
-10.15625 -0.28125 -2.7939987
-10.109375 -0.3125 -2.8069992
-10.171875 -0.25 -2.7970009
-10.109375 -0.25 -2.7959976
-10.109375 -0.21875 -2.8066647
-10.078125 -0.1875 -2.8069992
-10.078125 -0.15625 -2.8195
-10.0625 -0.125 -2.8064995
-10.03125 -0.10416666 -2.8083332
-10.015625 -0.0625 -2.8059978
-10.046875 -0.03125 -2.7900009
-10.015625 -0.03125 -2.7900009
-9.96875 -0.03125 -2.829998
-9.890625 -0.03125 -2.8219986
-9.84375 -0.03125 -2.8069992
-10 0.015625 -2.7994995
-9.9765625 0.03125 -2.8034992
-9.911458 0.010416667 -2.8166668
-9.958333 0.0625 -2.8143322
-9.921875 0.0625 -2.8209991
-9.953125 0.11458334 -2.8136661
-9.921875 0.125 -2.8180008
-9.927083 0.15625 -2.8023326
-9.90625 0.19791667 -2.8069992
-9.885417 0.21875 -2.8146656
-9.8671875 0.25 -2.8109989
-9.84375 0.25 -2.8330002
-9.869792 0.29166666 -2.7996647
-9.84375 0.3125 -2.8134975
-9.822917 0.34375 -2.8126667
-9.796875 0.375 -2.8219986
-9.828125 0.40625 -2.7989998
-9.78125 0.41666666 -2.8050003
-10.1875 -0.34375 -2.763998
-10.140625 -0.34375 -2.7560005
-10.125 -0.34375 -2.7779999
-10.171875 -0.3125 -2.7525005
-10.140625 -0.3125 -2.7749996
-10.125 -0.28125 -2.7599983
-10.15625 -0.25 -2.7779999
-10.125 -0.25 -2.7480011
-10.10625 -0.2 -2.7695992
-10.09375 -0.15625 -2.7869987
-10.078125 -0.15625 -2.760498
-10.03125 -0.15625 -2.7560005
-10.070312 -0.109375 -2.7834988
-10.026042 -0.10416666 -2.7636669
-10.046875 -0.03125 -2.7539978
-10.015625 -0.03125 -2.7490005
-9.984375 -0.03125 -2.762001
-10.007812 0 -2.7669983
-9.979167 0.03125 -2.7623329
-9.96875 0.0625 -2.7794991
-9.9648438 0.1015625 -2.767498
-9.921875 0.125 -2.7633336
-9.953125 0.15625 -2.7729988
-9.90625 0.15625 -2.762001
-9.927083 0.1875 -2.7529995
-9.890625 0.203125 -2.7704983
-9.880208 0.25 -2.7663333
-9.8625002 0.28749999 -2.7649994
-9.84375 0.3125 -2.7684994
-9.859375 0.34375 -2.7519989
-9.822917 0.375 -2.773
-9.796875 0.375 -2.7840004
-9.828125 0.40625 -2.757
-9.78125 0.43125001 -2.7689996
-10.1875 -0.375 -2.7039986
-10.171875 -0.34375 -2.7210007
-10.179688 -0.3125 -2.7084999
-10.140625 -0.3125 -2.7130013
-10.125 -0.28125 -2.7410011
-10.15625 -0.25 -2.7280006
-10.125 -0.25 -2.7150002
-10.171875 -0.21875 -2.7130013
-10.15625 -0.21875 -2.7340012
-10.109375 -0.1875 -2.7209995
-10.078125 -0.1875 -2.7109985
-10.098958 -0.15625 -2.7176666
-10.078125 -0.15625 -2.7259979
-10.078125 -0.09375 -2.7299995
-10.03125 -0.09375 -2.7169991
-10.0625 -0.0625 -2.7194996
-10.023438 -0.0625 -2.7220001
-10.046875 -0.03125 -2.7439995
-10 -0.03125 -2.7389984
-10.015625 0 -2.7156665
-9.984375 0.020833334 -2.7206676
-9.96875 0.0625 -2.7220001
-9.96875 0.1 -2.7271996
-9.916667 0.125 -2.7046661
-9.90625 0.15625 -2.7350006
-9.90625 0.19791667 -2.7186673
-9.8828125 0.21875 -2.7089996
-9.875 0.25 -2.7316666
-9.8671875 0.296875 -2.7179997
-9.833333 0.34375 -2.7196655
-9.822917 0.375 -2.7199986
-9.796875 0.375 -2.7290001
-9.828125 0.40625 -2.718998
-9.7890625 0.42708334 -2.7275002
-9.765625 0.46875 -2.7099991
-10.1875 -0.375 -2.6609993
-10.1875 -0.34375 -2.6650009
-10.140625 -0.34375 -2.6699982
-10.171875 -0.28125 -2.6650009
-10.148438 -0.296875 -2.6767492
-10.125 -0.28125 -2.6559982
-10.15625 -0.25 -2.6699982
-10.109375 -0.25 -2.6749992
-10.109375 -0.19791667 -2.6783321
-10.078125 -0.1875 -2.6870003
-10.125 -0.15625 -2.6769981
-10.078125 -0.15625 -2.6699982
-10.070312 -0.1171875 -2.6744995
-10.03125 -0.09375 -2.6759987
-10.0625 -0.0625 -2.697998
-10.03125 -0.0625 -2.6559982
-10.046875 -0.03125 -2.6739998
-10.015625 -0.03125 -2.6809998
-10.007812 0.0078125 -2.6852493
-9.984375 0.015625 -2.6584988
-10 0.0625 -2.6800003
-9.96875 0.0625 -2.6733322
-9.9609375 0.1015625 -2.677249
-9.921875 0.09375 -2.6949997
-9.9375 0.15625 -2.6714993
-9.9140625 0.203125 -2.6764994
-9.890625 0.21875 -2.6829987
-9.885417 0.25 -2.6799991
-9.8671875 0.28125 -2.6699991
-9.84375 0.3125 -2.6769981
-9.859375 0.34375 -2.6879997
-9.828125 0.34375 -2.6669998
-9.84375 0.375 -2.6619987
-9.828125 0.40625 -2.6806653
-9.7937498 0.43125001 -2.679599
-10.1875 -0.3125 -2.637001
-10.125 -0.3125 -2.6409988
-10.117188 -0.25 -2.6399994
-10.109375 -0.1875 -2.6349983
-10.09375 -0.15625 -2.6399994
-10.078125 -0.125 -2.6459999
-9.96875 -0.0625 -2.6230011
-10.015625 -0.03125 -2.6529999
-9.984375 -0.03125 -2.6389999
-9.90625 -0.03125 -2.6149979
-10 0 -2.6459999
-9.96875 0.03125 -2.618
-10 0.0625 -2.6399994
-9.921875 0.0625 -2.6139984
-9.9765625 0.09375 -2.6474991
-9.9375 0.15625 -2.6380005
-9.90625 0.21875 -2.6419983
-9.859375 0.3125 -2.6419983
-9.859375 0.34375 -2.6479988
-9.84375 0.375 -2.6459999
-9.796875 0.40625 -2.6520004
-9.9765625 -0.03125 -2.5779991
-9.90625 -0.03125 -2.5859985
-9.890625 -0.03125 -2.5709991
-9.953125 0.03125 -2.5949993
-9.921875 0 -2.5830002
-9.828125 0 -2.5880013
-9.90625 0.09375 -2.579998
-9.890625 -0.03125 -2.5429993
-9.9609375 0.020833334 -2.545332
-9.916667 0.010416667 -2.5383313
-9.890625 -0.03125 -2.5169983
-9.9624996 0.018750001 -2.4979987
-9.9140625 0.015625 -2.4954987
-9.921875 0.0625 -2.4939995
-9.96875 -0.03125 -2.4580002
-9.8828125 -0.03125 -2.4609985
-9.9648438 0.0078125 -2.4514999
-9.916667 0 -2.4586666
-9.984375 -0.03125 -2.3899994
-9.90625 -0.03125 -2.4069977
-9.958333 0.020833334 -2.4146664
-9.921875 0.0625 -2.3959999
-9.8828125 -0.03125 -2.3599987
-9.9642859 0.022321429 -2.3615706
-9.90625 0 -2.3660011
-9.9140625 -0.03125 -2.3115005
-9.963542 0.020833334 -2.314666
-9.921875 0 -2.3380013
-9.953125 0.0625 -2.2989998
-9.984375 -0.03125 -2.2869987
-9.9375 -0.03125 -2.2700005
-9.9624996 0.018750001 -2.2643991
-9.921875 0.03125 -2.276001
-9.890625 0.03125 -2.2679977
-9.984375 -0.03125 -2.2080002
-9.90625 -0.03125 -2.218998
-9.890625 -0.03125 -2.2439995
-10 0 -2.2480011
-9.9609375 0.020833334 -2.2208328
-9.921875 0 -2.2389984
-9.96875 -0.03125 -2.1919975
-9.90625 -0.03125 -2.1930008
-10 0 -2.1650009
-9.9593754 0.025 -2.1759994
-9.90625 0 -2.1629982
-9.953125 0.0625 -2.2010002
-9.984375 -0.03125 -2.1409988
-9.90625 -0.03125 -2.1469994
-9.96875 0.0125 -2.1298003
-9.921875 0.015625 -2.1324997
-9.90625 -0.03125 -2.1139984
-9.96875 0.0125 -2.0901999
-9.90625 0 -2.0839996
-9.953125 0.0625 -2.0929985
-9.96875 0.015625 -2.046999
-9.916667 0.010416667 -2.0486667
-9.890625 0 -2.0309982
-9.90625 -0.03125 -2.0089989
-9.96875 0.018750001 -2.0015998
-9.953125 0.0625 -2.0024986
-10 -0.03125 -1.9419975
-9.984375 -0.03125 -1.9630013
-9.921875 -0.03125 -1.9799995
-9.9656248 0.018750001 -1.9526001
-9.921875 0.015625 -1.9499989
-10 -0.03125 -1.9020004
-9.90625 -0.03125 -1.8959999
-9.890625 -0.03125 -1.9239998
-9.96875 0.015625 -1.9129988
-9.921875 -0.03125 -1.8699989
-10 0 -1.8610001
-9.9661455 0.015625 -1.8713328
-9.953125 0.0625 -1.8789978
-9.921875 -0.03125 -1.8255005
-10 0 -1.8269997
-9.96875 0.018750001 -1.8223999
-9.984375 -0.03125 -1.7859993
-9.921875 -0.03125 -1.7684994
-10 0 -1.7779999
-9.96875 0.018750001 -1.7761993
-9.96875 0.0625 -1.7999992
-9.984375 -0.03125 -1.718998
-10 0 -1.7389984
-9.96875 0.015625 -1.7319998
-9.921875 -0.03125 -1.6669998
-10 0 -1.6999989
-9.9656248 0.025 -1.6845986
-9.90625 0 -1.6930008
-9.96875 0.0625 -1.6809998
-10 -0.03125 -1.6549988
-10.007812 0.015625 -1.6479988
-9.9648438 0.0078125 -1.637249
-9.921875 -0.03125 -1.5929985
-10.007812 0 -1.6034985
-9.9609375 0.015625 -1.6017494
-9.984375 -0.0625 -1.5410004
-9.9375 -0.03125 -1.5470009
-10.015625 0 -1.572998
-9.96875 0.018750001 -1.5555992
-10 -0.03125 -1.5149994
-10 0 -1.5156657
-9.9726562 0.015625 -1.5084991
-10 -0.03125 -1.4769993
-9.921875 -0.03125 -1.4659996
-10 0 -1.4545002
-9.9765625 0.015625 -1.4602489
-9.96875 0.0625 -1.4640007
-10.007812 -0.03125 -1.4244995
-9.9375 -0.03125 -1.4220009
-10 0 -1.4004993
-9.96875 0.015625 -1.4154987
-10.015625 -0.03125 -1.3899994
-9.921875 -0.03125 -1.3729992
-10.010417 0.020833334 -1.366333
-9.973958 0.010416667 -1.3806661
-10.015625 -0.03125 -1.3479996
-10 0 -1.3274994
-9.9750004 0.0125 -1.328199
-10.015625 -0.03125 -1.3029976
-10 0 -1.2796669
-9.979167 0.010416667 -1.2863325
-10.015625 -0.03125 -1.2389984
-9.9375 -0.03125 -1.257
-10.007812 0 -1.2299995
-9.9750004 0.0125 -1.2387993
-10 -0.03125 -1.1779976
-10.005208 0 -1.1923319
-9.9804688 0.015625 -1.189249
-10.015625 -0.03125 -1.132
-10.007812 0.0078125 -1.1494989
-9.9765625 0.015625 -1.1455002
-9.921875 0 -1.1469994
-10 -0.03125 -1.1170006
-9.9375 -0.03125 -1.1240005
-10.046875 0 -1.098999
-10.007812 0 -1.0965004
-9.979167 0.010416667 -1.0976652
-10.015625 -0.03125 -1.052
-10.015625 0 -1.052
-9.984375 0.010416667 -1.0663325
-10.046875 -0.03125 -1.0050011
-10.015625 -0.03125 -0.99499893
-10.010417 0.010416667 -1.0196661
-9.973958 0.010416667 -1.0196661
-9.96875 0.0625 -1.0239983
-10.046875 -0.03125 -0.96199799
-10.009375 0.0125 -0.96599883
-9.9765625 0.0078125 -0.97900009
-10.046875 -0.03125 -0.91999817
-10.015625 -0.03125 -0.93199921
-10.009375 0.0125 -0.92559814
-9.979167 0 -0.91733295
-10.046875 -0.03125 -0.87400055
-10.015625 -0.03125 -0.8730011
-10.046875 0 -0.88899994
-10.007812 0.015625 -0.88374805
-9.984375 0 -0.875
-10.046875 -0.03125 -0.83099747
-9.9375 -0.03125 -0.83599854
-10.046875 0 -0.84499741
-10.007812 0.015625 -0.83224869
-9.984375 0 -0.84249878
-10.015625 -0.03125 -0.7974987
-10.046875 0 -0.79633206
-10.007812 0.0078125 -0.78174877
-9.9765625 0 -0.79199982
-10.046875 -0.03125 -0.74433261
-10.054688 0 -0.76049805
-10.007812 0 -0.73649979
-9.984375 0 -0.75600052
-10.015625 -0.03125 -0.68600082
-10.046875 0 -0.69749928
-10.007812 0.015625 -0.70149803
-9.9765625 0 -0.69750023
-10.052083 -0.03125 -0.6503334
-10.052083 0 -0.63833362
-10.007812 0.015625 -0.66249943
-9.984375 0 -0.65849876
-10.046875 -0.03125 -0.5890007
-10.054688 0 -0.61249924
-10.009375 0.0125 -0.61119998
-9.984375 0 -0.58799744
-10.046875 -0.03125 -0.56899899
-10.046875 0.0052083335 -0.56266659
-10.005208 0.010416667 -0.55799866
-9.984375 0 -0.56399918
-10.046875 -0.03125 -0.51966602
-10.050781 0 -0.510499
-10.003125 0.0062500001 -0.52200013
-9.984375 0 -0.52000046
-10.052083 -0.03125 -0.46499887
-10.046875 0 -0.46999893
-10.009375 0 -0.4695999
-9.96875 0 -0.46199799
-10.0625 -0.03125 -0.42650032
-10.049479 0 -0.42783293
-10.003906 0.015625 -0.42924976
-9.984375 0 -0.43499756
-10.015625 -0.0625 -0.38800049
-10.057292 -0.03125 -0.3830007
-10.054688 0 -0.37475014
-10.010417 0 -0.38916588
-9.984375 0 -0.40299988
-10.059375 -0.03125 -0.33099899
-10.050781 0 -0.33974886
-10 0 -0.34499741
-9.96875 0 -0.34199905
-10.058594 -0.03125 -0.3002491
-10.0625 0 -0.29428482
-10.005208 0.010416667 -0.30499902
-10.0625 -0.03125 -0.24371447
-10.0625 0 -0.25966644
-10.007812 0.015625 -0.24950027
-10.0625 -0.03125 -0.20679855
-10.015625 0 -0.20899963
-9.984375 0 -0.21999741
-10.0625 -0.03125 -0.17200089
-10.007812 0 -0.16250038
-10.007812 0 -0.11100006
-9.984375 0 -0.125
-10.015625 0.015625 -0.075998306
-10.015625 0.015625 -0.023500443
-10.010417 0 0.018333435
-10.046875 0 0.076000214
-10.046875 0.03125 0.12200165
-10.015625 0 0.10300064
-10.054688 0.015625 0.1590004
-10.0625 0.0625 0.14900208
-10.070312 0.015625 0.20849991
-10.09375 0.0625 0.19599915
-10.140625 0.03125 0.26700211
-10.109375 0.03125 0.24600029
-10.140625 0.0625 0.25
-10.90625 0.3125 0.26599884
-10.859375 0.3125 0.25400162
-10.859375 0.34375 0.2460022
-10.835938 0.375 0.24200058
-10.828125 0.40625 0.25
-10.171875 0.0625 0.28300095
-10.21875 0.09375 0.30500031
-10.1875 0.09375 0.29400253
-10.15625 0.09375 0.27700043
-10.859375 0.21875 0.30200195
-10.828125 0.21875 0.31233343
-10.765625 0.203125 0.31100082
-10.742188 0.203125 0.31000137
-10.679688 0.203125 0.3105011
-10.9375 0.25 0.30800247
-10.921875 0.25 0.31299973
-10.875 0.25 0.28000259
-10.835938 0.25 0.29700089
-10.734375 0.25 0.30599976
-10.6875 0.25 0.30500031
-10.640625 0.25 0.31100082
-10.59375 0.25 0.31299973
-11.078125 0.3125 0.31200027
-11.007812 0.296875 0.30900192
-10.953125 0.28125 0.3030014
-10.864583 0.28125 0.2900022
-10.835938 0.28125 0.29500103
-10.765625 0.28125 0.31299973
-10.738281 0.2890625 0.30900097
-10.671875 0.28125 0.31200027
-11.09375 0.34375 0.31399918
-11.03125 0.34375 0.30900192
-10.8125 0.34375 0.2859993
-10.71875 0.34375 0.31100082
-10.671875 0.34375 0.31299973
-11.109375 0.375 0.31399918
-10.953125 0.375 0.28700256
-10.726562 0.375 0.31200027
-11.09375 0.40625 0.30900192
-11.015625 0.40625 0.30900192
-10.9375 0.4375 0.28000259
-10.796875 0.40625 0.28100204
-10.6875 0.40625 0.31000137
-10.734375 0.46875 0.29999924
-10.953125 0.515625 0.29650116
-10.796875 0.5 0.30900192
-10.1875 0.0625 0.32799911
-10.320312 0.125 0.34800148
-10.265625 0.109375 0.33550072
-10.239583 0.10416666 0.32866797
-10.859375 0.15625 0.35800171
-10.671875 0.15625 0.33100128
-10.40625 0.15625 0.35900116
-10.359375 0.15625 0.35499954
-10.320312 0.15625 0.32999992
-10.96875 0.21875 0.34500122
-10.90625 0.1875 0.33100128
-10.875 0.21875 0.33733368
-10.840278 0.21527778 0.33955637
-10.703125 0.1875 0.32200241
-10.640625 0.203125 0.33100128
-10.598958 0.19791667 0.33200201
-10.5625 0.21875 0.32300186
-10.476562 0.21875 0.34449959
-10.414062 0.203125 0.34350014
-10.359375 0.1875 0.34000015
-11.046875 0.25 0.33300018
-10.945312 0.25 0.34950066
-10.921875 0.25 0.34300232
-10.864583 0.25 0.33133444
-10.838542 0.25 0.33933386
-10.78125 0.25 0.31600189
-10.5625 0.25 0.31800079
-10.5 0.25 0.3390007
-11.171875 0.3125 0.35400137
-11.078125 0.3125 0.34199905
-11.046875 0.3125 0.31999969
-11.005208 0.28125 0.3556684
-10.859375 0.28125 0.35800171
-10.84375 0.29166666 0.33066687
-10.78125 0.3125 0.31500244
-10.651042 0.29166666 0.31966782
-10.597656 0.296875 0.31850052
-10.554688 0.3125 0.31850052
-11.171875 0.34375 0.3409996
-11.15625 0.34375 0.33600235
-11.109375 0.34375 0.32300186
-10.8125 0.34375 0.34000015
-10.75 0.34375 0.31500244
-10.6875 0.34375 0.32200241
-10.640625 0.34375 0.31800079
-10.59375 0.34375 0.32400131
-10.546875 0.34375 0.33000183
-11.125 0.375 0.3390007
-11.078125 0.375 0.3390007
-11.0625 0.375 0.3370018
-10.859375 0.375 0.33200073
-10.765625 0.375 0.32900238
-10.578125 0.375 0.32699966
-11.133928 0.42410713 0.34871456
-11.090625 0.42500001 0.33380049
-11.046875 0.421875 0.33699989
-11.015625 0.40625 0.34000015
-10.96875 0.40625 0.32799911
-10.890625 0.40625 0.35599899
-10.84375 0.4375 0.31500244
-10.734375 0.41666666 0.3326683
-10.671875 0.4375 0.32099915
-10.640625 0.40625 0.31850052
-10.578125 0.40625 0.33300018
-11 0.46875 0.32600021
-10.828125 0.46875 0.34799957
-10.75 0.46875 0.31900024
-10.703125 0.46875 0.32099915
-11.078125 0.5 0.32799911
-11.046875 0.515625 0.33200073
-11 0.52083331 0.33000055
-10.96875 0.515625 0.35149956
-10.890625 0.53125 0.32699966
-10.875 0.53125 0.3370018
-10.828125 0.515625 0.3275013
-11.046875 0.5625 0.34199905
-11 0.5625 0.34049988
-10.96875 0.5625 0.32500076
-11 0.59375 0.33100128
-10.90625 0.21875 0.3769989
-10.867188 0.2109375 0.37149906
-10.773438 0.203125 0.36499977
-10.695312 0.1875 0.39150047
-10.578125 0.1875 0.37400055
-10.5 0.21875 0.38100052
-10.476562 0.203125 0.36750221
-10.421875 0.1875 0.36500168
-10.9375 0.25 0.39099884
-10.90625 0.25 0.37850189
-10.867188 0.25 0.37725067
-11.109375 0.28125 0.40100098
-11.046875 0.3125 0.38600159
-11.015625 0.3125 0.38299942
-10.9375 0.3125 0.3710022
-10.921875 0.28125 0.38750076
-10.867188 0.28125 0.37350082
-11.171875 0.34375 0.36199951
-11.15625 0.34375 0.37900162
-11.078125 0.34375 0.40100098
-10.859375 0.34375 0.37900162
-10.78125 0.34375 0.3769989
-11.171875 0.375 0.36700058
-11.140625 0.375 0.38100052
-11.109375 0.375 0.39599991
-10.984375 0.375 0.36999893
-10.9375 0.375 0.39699936
-10.890625 0.375 0.40399933
-11.129464 0.42410713 0.372715
-11.109375 0.40625 0.39240035
-10.96875 0.40625 0.3769989
-10.890625 0.4375 0.40299988
-10.828125 0.4375 0.39200211
-11 0.46875 0.39500046
-10.9375 0.46875 0.37400055
-10.84375 0.46875 0.36700058
-11 0.5 0.37200165
-10.90625 0.515625 0.37849998
-10.875 0.5 0.37199974
-10.84375 0.5 0.36100006
-10.65625 0.21875 0.40500259
-10.601562 0.1875 0.41600037
-11.125 0.3125 0.42900085
-11.135417 0.34375 0.43166733
-10.859375 0.34375 0.4109993
-11.125 0.375 0.42150116
-11.109375 0.375 0.4355011
-10.898438 0.375 0.43800163
-10.78125 0.375 0.44800186
-11.125 0.40625 0.41250038
-11.109375 0.40625 0.43187618
-10.90625 0.421875 0.44200134
-10.90625 0.46875 0.41699982
-10.859375 0.46875 0.41799927
-10.84375 0.46875 0.41699982
-11.125 0.34375 0.45100021
-11.125 0.375 0.45199966
-11.09375 0.375 0.46500015
