# .PCD v0.7 - Point Cloud Data file format
VERSION 0.7
FIELDS x y z
SIZE 4 4 4
TYPE F F F
COUNT 1 1 1
WIDTH 886
HEIGHT 1
VIEWPOINT 0 0 0 1 0 0 0
POINTS 886
DATA ascii
-11.171875 0.3125 0.35499954
-11.171875 0.34375 0.3409996
-9.796875 -0.03125 -5.447998
-10.1875 -0.375 -2.7039986
-10.1875 -0.375 -2.6609993
-11.171875 0.375 0.36700058
-11.171875 0.34375 0.36199951
-11.171875 0.3125 0.35700226
-11.171875 0.3125 0.35000229
-10 0 0
-10.015625 0 -0.041000366
-10.09375 0.0625 0.19599915
-10.109375 0.03125 0.22800064
-10.171875 0.0625 0.28300095
-10.1875 0.0625 0.32799911
-10.1875 0.09375 0.29400253
-9.96875 0 -0.79399872
-9.96875 0 -0.90699768
-9.984375 0 -0.82999802
-10 0.03125 -0.76699829
-9.96875 0 -1.1919975
-9.96875 0 -1.2939987
-9.96875 0 -1.2529984
-9.96875 0 -1.4829979
-9.921875 -0.03125 -1.6669998
-9.96875 0.03125 -1.3829994
-10.609375 0.1875 0.35000229
-9.953125 0 -1.6899986
-9.96875 0 -1.6559982
-9.96875 0 -1.5879974
-10.5625 0.21875 0.32300186
-10.640625 0.1875 0.34400177
-9.90625 -0.03125 -1.8959999
-10.671875 0.15625 0.33100128
-9.953125 0 -1.8899994
-10.171875 -0.34375 -2.7340012
-10.140625 -0.3125 -2.6559982
-9.921875 0 -2.0579987
-10.609375 0.28125 0.31500244
-10.75 0.1875 0.31000137
-10.140625 -0.3125 -2.762001
-10.125 -0.28125 -2.6559982
-9.921875 0 -2.132
-9.953125 0.03125 -1.9790001
-10.640625 0.28125 0.31800079
-10.15625 -0.28125 -2.7939987
-10.125 -0.28125 -2.7669983
-9.96875 -0.03125 -2.1919975
-9.953125 0.0625 -1.9869995
-10.828125 0.21875 0.35800171
-10.109375 -0.25 -2.7959976
-10.15625 -0.25 -2.7779999
-9.890625 -0.03125 -2.447998
-9.953125 0.03125 -2.1300011
-10.75 0.28125 0.31000137
-10.828125 0.21875 0.31200027
-10.84375 0.21875 0.35000229
-9.890625 -0.03125 -2.5169983
-9.921875 0 -2.4370003
-9.953125 0.03125 -2.2939987
-9.921875 0 -2.4749985
-9.953125 0.03125 -2.3619995
-10.75 0.3125 0.31299973
-9.953125 0 -2.5439987
-9.875 -0.03125 -2.8909988
-10.03125 -0.09375 -2.7900009
-9.953125 0.03125 -2.5249977
-10.734375 0.375 0.31299973
-10.8125 0.34375 0.34000015
-9.875 -0.03125 -2.9529991
-9.90625 0 -2.848999
-10.015625 -0.0625 -2.7949982
-10 -0.03125 -2.7389984
-9.984375 0 -2.6559982
-10.859375 0.3125 0.25400162
-9.90625 0 -2.9899979
-9.90625 0 -2.9640007
-10 0 -2.7729988
-10.828125 0.375 0.23300171
-9.84375 -0.03125 -3.2329979
-10.890625 0.40625 0.44400024
-11.015625 0.3125 0.30800247
-9.875 -0.03125 -3.2649994
-9.890625 -0.03125 -3.2389984
-9.890625 0 -3.1090012
-9.953125 0.09375 -2.7249985
-10.921875 0.4375 0.44000244
-9.8125 -0.03125 -3.4589996
-9.875 -0.03125 -3.3759995
-9.90625 0 -3.1940002
-11.078125 0.3125 0.31200027
-9.875 -0.03125 -3.5699997
-9.890625 0 -3.5159988
-9.921875 0 -3.3849983
-9.890625 0.21875 -2.6829987
-9.90625 0.03125 -3.4700012
-9.90625 0.0625 -3.3180008
-9.890625 0.21875 -2.8009987
-9.875 0.25 -2.7159996
-10.921875 0.5 0.38999939
-11.078125 0.40625 0.32099915
-11.109375 0.375 0.31399918
-9.890625 0 -3.6549988
-9.84375 0.3125 -2.6629982
-9.890625 0.03125 -3.6619987
-9.890625 0.03125 -3.6359978
-9.890625 0.03125 -3.6110001
-9.859375 0.3125 -2.7019997
-9.890625 0 -3.8769989
-9.875 0 -3.8509979
-9.890625 0 -3.8250008
-9.90625 0.0625 -3.6429977
-9.890625 0.0625 -3.6189995
-9.8125 0.375 -2.704998
-9.828125 -0.03125 -4.1959991
-9.84375 -0.03125 -4.1049995
-9.90625 0 -3.9269981
-9.890625 0.03125 -3.8810005
-9.796875 -0.03125 -4.3260002
-9.828125 -0.03125 -4.2869987
-9.875 0 -4.132
-9.875 0 -4.1349983
-9.890625 0.0625 -3.973999
-9.875 0.0625 -3.9249992
-9.84375 -0.03125 -4.4039993
-9.84375 0 -4.3400002
-9.875 0 -4.2509995
-9.875 0.03125 -4.1949997
-9.875 0.0625 -4.0369987
-9.890625 0.03125 -4.2249985
-9.875 0.0625 -4.1769981
-9.875 0.0625 -4.151001
-9.796875 -0.03125 -4.75
-9.8125 -0.03125 -4.6669998
-9.84375 0 -4.526001
-9.875 0.0625 -4.2939987
-9.8125 -0.03125 -4.7719994
-9.84375 0 -4.6569977
-9.78125 -0.03125 -5.0750008
-9.84375 0 -4.8239975
-9.8125 -0.03125 -5.0919991
-9.875 0.03125 -4.7589989
-9.84375 0.03125 -4.8699989
-9.828125 0 -5.112999
-9.828125 0 -5.2290001
-9.8125 -0.03125 -5.4389992
-9.828125 0 -5.3959999
-9.828125 0.03125 -5.4409981
-10.1875 -0.34375 -2.7929993
-10.171875 -0.3125 -2.75
-10.15625 -0.25 -2.6699982
-10.109375 -0.1875 -2.7179985
-10.078125 -0.15625 -2.8079987
-10.078125 -0.15625 -2.7259979
-9.84375 0.03125 -3.5789986
-9.890625 0.03125 -3.362999
-9.96875 -0.03125 -2.8810005
-10.015625 0 -2.7080002
-9.90625 0.03125 -3.1079979
-9.921875 0.03125 -2.8520012
-9.953125 0.0625 -2.8129997
-9.984375 0 -2.4640007
-9.984375 0 -2.2060013
-9.921875 0.03125 -2.4759979
-10 0 -1.8610001
-9.921875 0.03125 -2.1329994
-10 0 -1.7779999
-10 0 -1.6969986
-10.015625 -0.03125 -1.2179985
-10.046875 0 -1.0919991
-10.015625 -0.03125 -1.0470009
-11.109375 0.28125 0.40100098
-10.046875 -0.03125 -0.74499893
-10.046875 0 -0.80099869
-10.859375 0.15625 0.35800171
-10.0625 -0.03125 -0.63000107
-10.859375 0.21875 0.36999893
-10.84375 0.21875 0.3409996
-10.84375 0.25 0.34799957
-10.0625 0 -0.29499817
-10.859375 0.28125 0.28000259
-10.0625 0 -0.27999878
-10.0625 -0.03125 -0.23400116
-10.859375 0.28125 0.36899948
-10.0625 0 -0.30899811
-10 0 -0.41999817
-10.84375 0.21875 0.33399963
-10.0625 -0.03125 -0.31499863
-10.828125 0.21875 0.31900024
-10.046875 0 -0.56900024
-10.046875 -0.03125 -0.75
-10.015625 0 -0.92099762
-10 -0.03125 -1.1170006
-10 0 -1.401001
-10 0 -1.8339996
-9.921875 0.03125 -2.276001
-9.984375 -0.03125 -2.1409988
-10 0.03125 -2.6899986
-10.015625 0 -2.7609978
-10.015625 -0.03125 -2.7900009
-10.046875 -0.03125 -2.7439995
-10.09375 -0.15625 -2.7869987
-9.875 0.03125 -3.9910011
-10.1875 -0.3125 -2.637001
-9.828125 0.0625 -5.0219994
-10.046875 0.03125 0.12200165
-10.015625 0.03125 -0.0060005188
-10.0625 0.0625 0.14900208
-10.015625 0.03125 -0.085998535
-10.140625 0.0625 0.25
-10.015625 0.03125 -0.23600006
-10.15625 0.09375 0.27700043
-10 0.03125 -0.41799927
-10 0.03125 -0.30500031
-10.21875 0.09375 0.30500031
-10 0.03125 -0.44300079
-10.25 0.125 0.31900024
-10 0.03125 -0.62199783
-10.265625 0.125 0.32500076
-10 0.03125 -0.6969986
-10.3125 0.15625 0.32699966
-10 0.03125 -0.81299973
-10.328125 0.15625 0.33300018
-9.96875 0 -1.0879974
-10 0.03125 -0.92799759
-10.359375 0.1875 0.34000015
-9.953125 0 -1.2229996
-9.984375 0.03125 -1.0330009
-10.40625 0.1875 0.33800125
-9.953125 0 -1.3250008
-9.984375 0.03125 -1.1380005
-9.96875 0.0625 -1.0239983
-10.421875 0.21875 0.34899902
-9.96875 0 -1.3859978
-9.984375 0.03125 -1.2369995
-10.46875 0.21875 0.34000015
-9.96875 0 -1.5159988
-9.984375 0.03125 -1.3289986
-10.484375 0.21875 0.34899902
-9.953125 0 -1.6339989
-9.984375 0.03125 -1.4640007
-10.5 0.25 0.35400009
-9.953125 0 -1.7220001
-9.96875 0.03125 -1.5499992
-9.96875 0.0625 -1.4640007
-10.5 0.25 0.32400131
-10.65625 0.21875 0.40500259
-9.953125 0 -1.8059998
-9.96875 0.03125 -1.6769981
-10.5625 0.25 0.31800079
-10.6875 0.1875 0.39900208
-10.125 -0.3125 -2.6409988
-9.890625 0 -2.0309982
-9.921875 0 -1.9469986
-9.96875 0.03125 -1.7910004
-9.96875 0.0625 -1.6809998
-10.546875 0.3125 0.31600189
-10.140625 -0.3125 -2.6809998
-9.90625 -0.03125 -2.1469994
-9.90625 0 -2.0839996
-9.921875 0.03125 -1.9529991
-9.96875 0.03125 -1.8730011
-9.96875 0.0625 -1.7999992
-10.5625 0.3125 0.32099915
-10.140625 -0.3125 -2.7130013
-10.15625 -0.28125 -2.6870003
-9.890625 -0.03125 -2.2439995
-9.90625 0 -2.1629982
-9.90625 0.03125 -2.0610008
-9.953125 0.03125 -2.012001
-9.953125 0.0625 -1.8789978
-10.546875 0.34375 0.33000183
-10.78125 0.21875 0.36299896
-10.125 -0.25 -2.7150002
-9.875 -0.03125 -2.3719978
-9.921875 0 -2.2389984
-9.953125 0 -2.1520004
-9.96875 0.03125 -2.0900002
-9.953125 0.0625 -2.0179977
-10.578125 0.375 0.32699966
-10.078125 -0.1875 -2.7109985
-9.875 -0.03125 -2.473999
-9.90625 0 -2.3660011
-9.890625 0.03125 -2.2679977
-9.953125 0.03125 -2.2220001
-9.953125 0.0625 -2.0929985
-10.59375 0.34375 0.32400131
-10.09375 -0.1875 -2.7509995
-10.109375 -0.1875 -2.7019997
-10.078125 -0.15625 -2.6699982
-9.828125 0 -2.5880013
-9.90625 0 -2.4899979
-9.953125 0.03125 -2.3219986
-9.953125 0.0625 -2.2010002
-10.578125 0.40625 0.33300018
-10.078125 -0.15625 -2.7539978
-10.0625 -0.125 -2.6720009
-9.90625 -0.03125 -2.6149979
-9.90625 0 -2.5589981
-9.953125 0.03125 -2.3929977
-9.953125 0.0625 -2.2989998
-10.625 0.40625 0.31999969
-10.03125 -0.09375 -2.7299995
-9.984375 -0.03125 -2.6389999
-9.921875 0 -2.5950012
-9.921875 0.03125 -2.5139999
-9.921875 0.0625 -2.3959999
-10.65625 0.40625 0.31700134
-10.78125 0.34375 0.3769989
-10.03125 -0.0625 -2.7360001
-10.015625 -0.03125 -2.6809998
-9.953125 0.03125 -2.6079979
-9.921875 0.0625 -2.4939995
-10.6875 0.40625 0.31000137
-10.78125 0.375 0.44800186
-9.890625 0 -2.9269981
-9.984375 -0.03125 -2.762001
-9.984375 0 -2.7080002
-9.921875 0.0625 -2.6139984
-9.90625 0.09375 -2.579998
-10.671875 0.4375 0.32099915
-10.859375 0.34375 0.37900162
-10.890625 0.375 0.43500137
-9.890625 0 -3.0149994
-9.890625 0.03125 -2.882
-9.921875 0.03125 -2.8409996
-10.015625 0 -2.7220001
-9.984375 0.03125 -2.6609993
-10.703125 0.46875 0.32099915
-10.859375 0.375 0.33200073
-9.890625 0 -3.1009979
-9.890625 0.03125 -2.9959984
-9.921875 0.03125 -2.9459991
-9.921875 0.0625 -2.8479996
-9.96875 0.0625 -2.7220001
-10.734375 0.46875 0.29999924
-10.828125 0.4375 0.39200211
-9.890625 0 -3.2130013
-9.921875 0.03125 -3.0319977
-9.921875 0.0625 -2.9269981
-9.953125 0.09375 -2.7529984
-10.75 0.46875 0.31900024
-10.84375 0.4375 0.31500244
-10.84375 0.46875 0.41699982
-9.890625 0 -3.322998
-9.890625 0.03125 -3.2200012
-9.921875 0.03125 -3.1429977
-9.921875 0.0625 -3.0389977
-9.890625 0.09375 -2.9850006
-9.921875 0.125 -2.7840004
-9.921875 0.125 -2.7019997
-9.9375 0.15625 -2.6749992
-10.796875 0.5 0.30900192
-10.96875 0.40625 0.3769989
-11.078125 0.34375 0.40100098
-9.875 0 -3.4329987
-9.890625 0.03125 -3.2779999
-9.921875 0.0625 -3.1499977
-9.921875 0.125 -2.8180008
-9.9375 0.15625 -2.7910004
-9.90625 0.1875 -2.7070007
-10.8125 0.5 0.32400131
-9.875 0 -3.5429993
-9.875 0.03125 -3.4160004
-9.90625 0.03125 -3.3099976
-9.90625 0.0625 -3.2589989
-9.90625 0.1875 -2.8240013
-9.890625 0.1875 -2.7679977
-9.890625 0.21875 -2.7130013
-10.84375 0.53125 0.33100128
-10.9375 0.46875 0.37400055
-9.875 0 -3.6539993
-9.875 0.03125 -3.5249977
-9.90625 0.0625 -3.3419991
-9.875 0.09375 -3.2939987
-9.875 0.21875 -2.8260002
-9.875 0.25 -2.7719994
-9.859375 0.28125 -2.6860008
-10.875 0.53125 0.3370018
-9.875 0 -3.7369995
-9.890625 0.03125 -3.5789986
-9.90625 0.0625 -3.4510002
-9.875 0.09375 -3.4039993
-9.859375 0.25 -2.8059998
-9.859375 0.28125 -2.7779999
-9.84375 0.3125 -2.6909981
-10.890625 0.53125 0.32699966
-9.875 0 -3.8479996
-9.84375 0.03125 -3.7469978
-9.90625 0.0625 -3.5859985
-9.84375 0.3125 -2.8099976
-9.84375 0.34375 -2.7249985
-9.8125 0.34375 -2.6669998
-10.9375 0.53125 0.30800247
-9.875 0 -3.9609985
-9.890625 0.03125 -3.7970009
-9.90625 0.0625 -3.6679993
-9.8125 0.34375 -2.8169975
-9.796875 0.375 -2.7840004
-9.796875 0.40625 -2.6720009
-10.96875 0.5625 0.32500076
-9.875 0 -4.0459976
-9.890625 0.03125 -3.9080009
-9.890625 0.0625 -3.7779999
-9.859375 0.09375 -3.7089996
-9.796875 0.375 -2.8219986
-9.78125 0.40625 -2.7900009
-9.765625 0.4375 -2.7010002
-10.984375 0.5625 0.34000015
-9.84375 0 -4.1609993
-9.84375 0.03125 -4.0599976
-9.890625 0.03125 -3.9920006
-9.890625 0.0625 -3.887001
-9.875 0.09375 -3.8169975
-9.78125 0.40625 -2.8269997
-9.78125 0.4375 -2.7980003
-9.765625 0.46875 -2.7099991
-11 0.59375 0.33100128
-9.84375 0 -4.25
-9.890625 0.03125 -4.1040001
-9.890625 0.0625 -3.9990005
-9.84375 0 -4.3709984
-9.875 0.03125 -4.223999
-9.875 0.0625 -4.0890007
-9.859375 0.09375 -4.0209999
-9.84375 0 -4.4650002
-9.875 0.03125 -4.3110008
-9.875 0.0625 -4.2010002
-9.875 0.09375 -4.125
-9.84375 0 -4.5589981
-9.875 0.03125 -4.4029999
-9.875 0.0625 -4.3190002
-9.8125 0.09375 -4.2340012
-9.828125 0 -4.6909981
-9.875 0.03125 -4.5289993
-9.875 0.0625 -4.4109993
-9.859375 0.09375 -4.3390007
-9.828125 0 -4.7929993
-9.875 0.03125 -4.6230011
-9.875 0.0625 -4.507
-9.8125 0 -4.9459991
-9.84375 0.03125 -4.7259979
-9.859375 0.0625 -4.6339989
-9.859375 0.09375 -4.5550003
-9.828125 0 -5.0099983
-9.84375 0.03125 -4.8649979
-9.859375 0.0625 -4.7059975
-9.8125 0.09375 -4.6629982
-9.828125 0 -5.118
-9.84375 0.03125 -4.9710007
-9.828125 0 -5.1940002
-9.828125 0.03125 -5.0839996
-9.859375 0.0625 -4.9319992
-9.8125 0 -5.3180008
-9.84375 0.03125 -5.1539993
-9.828125 0.0625 -5.0550003
-9.8125 0 -5.4080009
-9.828125 0.03125 -5.2729988
-9.828125 0.0625 -5.1650009
-9.828125 0.03125 -5.3590012
-9.875 0.03125 -5.3989983
-9.875 0.03125 -5.1829987
-9.875 0.03125 -5.1409988
-9.890625 0.03125 -4.9230003
-9.890625 0.03125 -4.8789978
-9.875 0.03125 -4.8390007
-9.890625 0 -4.6660004
-9.921875 0 -4.4510002
-9.90625 0 -4.4099998
-9.90625 -0.03125 -4.237999
-9.890625 0.03125 -4.3699989
-9.90625 0 -4.1959991
-9.90625 0.03125 -4.3269997
-9.875 0.0625 -4.4599991
-9.90625 -0.03125 -4.026001
-9.921875 0 -4.1549988
-9.90625 0.03125 -4.2859993
-10.171875 -0.25 -2.7970009
-9.921875 -0.03125 -3.9829979
-9.921875 0.03125 -4.112999
-9.90625 0.0625 -4.2449989
-9.921875 0 -3.9419975
-9.921875 0.03125 -4.0719986
-9.890625 0.0625 -4.204998
-9.921875 0 -3.8999977
-9.90625 0.03125 -4.0309982
-9.875 0.0625 -4.1639977
-10.109375 -0.21875 -2.8009987
-9.921875 -0.03125 -3.7280006
-9.921875 0 -3.8590012
-9.90625 0.03125 -3.9899979
-9.859375 0.0625 -4.125
-10.109375 -0.1875 -2.7599983
-9.953125 0 -3.6860008
-9.921875 0.03125 -3.8169975
-9.953125 0 -3.6429977
-9.921875 0.03125 -3.776001
-9.921875 -0.0625 -3.4710007
-9.953125 0 -3.6040001
-9.921875 0.03125 -3.7360001
-10.078125 -0.15625 -2.7669983
-9.9375 -0.03125 -3.4300003
-9.953125 0.03125 -3.5620003
-9.90625 0.0625 -3.6959991
-9.96875 0 -3.3899994
-9.953125 0.03125 -3.5229988
-9.921875 -0.03125 -3.3499985
-9.921875 0.03125 -3.4819984
-9.890625 0.0625 -3.6170006
-10.0625 -0.09375 -2.7789993
-9.9375 -0.03125 -3.1769981
-9.953125 0 -3.3099976
-9.90625 0.03125 -3.4440002
-9.96875 -0.03125 -3.137001
-9.953125 0.03125 -3.2700005
-9.921875 0.0625 -3.4039993
-9.96875 0 -3.0970001
-9.953125 0.03125 -3.2299995
-10.046875 -0.03125 -2.7900009
-9.96875 0 -3.0559998
-9.953125 0.03125 -3.1889992
-9.96875 0.03125 -3.0149994
-9.953125 0.03125 -2.973999
-10 0.03125 -2.7999992
-9.984375 0.03125 -2.7589989
-9.984375 0.03125 -2.7200012
-10 0.0625 -2.6800003
-10 0.0625 -2.6399994
-9.984375 0.09375 -2.7749977
-9.953125 0.03125 -2.5979996
-9.984375 0.09375 -2.7360001
-9.984375 0.03125 -2.4239998
-9.96875 0.09375 -2.6949997
-9.953125 0.125 -2.829998
-9.984375 0.03125 -2.3829994
-9.96875 0.09375 -2.6549988
-9.953125 0.125 -2.7889977
-9.96875 0.03125 -2.3419991
-9.921875 0.125 -2.7490005
-9.96875 0.03125 -2.3009987
-9.921875 0.125 -2.7080002
-9.96875 0.03125 -2.2589989
-9.9375 0.15625 -2.6679993
-9.90625 0.1875 -2.8019981
-9.984375 0 -2.0820007
-9.953125 0.03125 -2.2169991
-9.90625 0.1875 -2.762001
-9.984375 0 -2.0389977
-9.953125 0.03125 -2.1749992
-9.90625 0.1875 -2.7210007
-9.984375 0.03125 -1.9990005
-9.90625 0.21875 -2.6819992
-9.984375 0.03125 -1.9570007
-9.90625 0.21875 -2.6419983
-9.890625 0.25 -2.7770004
-9.984375 0.03125 -1.9150009
-9.890625 0.25 -2.7369995
-9.984375 0.03125 -1.875
-9.890625 0.25 -2.697998
-9.96875 0.03125 -1.8330002
-9.890625 0.25 -2.6580009
-9.875 0.28125 -2.7939987
-10.015625 0 -1.6569977
-9.96875 0.03125 -1.7919998
-9.875 0.28125 -2.7539978
-10.015625 0 -1.6149979
-9.96875 0.03125 -1.75
-9.875 0.28125 -2.7150002
-10.015625 0 -1.572998
-9.953125 0.03125 -1.7059975
-9.875 0.28125 -2.6739998
-9.859375 0.3125 -2.8099976
-10 0 -1.5299988
-9.96875 0.03125 -1.6660004
-9.859375 0.3125 -2.7700005
-10 0 -1.487999
-9.859375 0.3125 -2.7290001
-10 0 -1.4440002
-9.859375 0.34375 -2.6879997
-10 0 -1.3999977
-9.859375 0.34375 -2.6479988
-9.84375 0.375 -2.7840004
-10.015625 0.03125 -1.3600006
-9.84375 0.375 -2.7439995
-9.8125 0.34375 -2.7019997
-10 0 -1.2719994
-9.84375 0.375 -2.6619987
-9.828125 0.40625 -2.7989998
-9.828125 0.40625 -2.7589989
-10 0 -1.1879997
-9.828125 0.40625 -2.718998
-10.015625 0 -1.1459999
-9.828125 0.40625 -2.6800003
-10.015625 0 -1.1040001
-9.796875 0.4375 -2.7770004
-10.015625 0 -1.0610008
-9.796875 0.4375 -2.7369995
-10.015625 0 -1.019001
-9.796875 0.4375 -2.6969986
-10.015625 0 -0.97399902
-9.796875 0.4375 -2.6559982
-10.015625 0 -0.93199921
-11.125 0.3125 0.42900085
-10.046875 0 -0.88899994
-11.15625 0.375 0.36800003
-10 0.03125 -0.94099808
-11.15625 0.34375 0.41600037
-11.015625 0.28125 0.35700226
-11.15625 0.375 0.36000061
-10.015625 0.03125 -0.81599808
-11.125 0.375 0.4070015
-10.015625 0 -0.77099991
-11.125 0.34375 0.45100021
-10.015625 0 -0.72800064
-11.125 0.40625 0.34799957
-10.046875 0 -0.68899918
-11.109375 0.375 0.39599991
-11.125 0.375 0.43600082
-10.9375 0.25 0.39099884
-11.15625 0.40625 0.36999893
-10.015625 0.03125 -0.66699982
-11.109375 0.375 0.42300034
-10.015625 0 -0.625
-10.875 0.21875 0.39099884
-10.046875 0 -0.58399963
-11.125 0.4375 0.35499954
-10.046875 0 -0.54000092
-11.125 0.40625 0.40299988
-11.109375 0.375 0.44800186
-10.015625 0.03125 -0.60200119
-11.125 0.4375 0.34199905
-10.046875 0.03125 -0.56100082
-11.109375 0.40625 0.38800049
-10.046875 0 -0.51799774
-11.109375 0.40625 0.43300247
-10.046875 0 -0.47599792
-10.921875 0.28125 0.38600159
-11.125 0.4375 0.36800003
-11.125 0.40625 0.4109993
-10.015625 0 -0.49499893
-11.09375 0.375 0.46699905
-10.046875 0 -0.45299911
-11.125 0.4375 0.35300064
-10.046875 0 -0.40999985
-11.109375 0.40625 0.39900208
-11.109375 0.40625 0.44700241
-10 0 -0.46500015
-11.109375 0.4375 0.34300232
-10.046875 0 -0.42699814
-11.109375 0.40625 0.38899994
-10.046875 0 -0.38399887
-11.109375 0.40625 0.43199921
-11.078125 0.40625 0.34199905
-11.125 0.4375 0.3710022
-10.015625 0 -0.39500046
-11.109375 0.40625 0.42399979
-10.046875 0 -0.35400009
-10.9375 0.3125 0.3710022
-11.125 0.4375 0.36000061
-11.109375 0.40625 0.41200256
-10.046875 0 -0.36700058
-11.09375 0.375 0.46300125
-10.046875 0 -0.3239975
-11.125 0.4375 0.35000229
-11.109375 0.40625 0.39799881
-10.015625 0 -0.3789978
-11.109375 0.40625 0.44700241
-10.046875 0 -0.3390007
-11.109375 0.4375 0.34600067
-11.109375 0.40625 0.38800049
-11.109375 0.40625 0.43600082
-10.046875 0 -0.35099792
-10.921875 0.28125 0.38899994
-11.125 0.4375 0.37200165
-11.109375 0.40625 0.42399979
-10.046875 0 -0.36700058
-10.90625 0.25 0.38500214
-11.125 0.40625 0.36500168
-11.125 0.40625 0.41400146
-10.046875 0 -0.38000107
-10.859375 0.25 0.38500214
-11.15625 0.40625 0.35200119
-11.125 0.375 0.40200043
-10.015625 0 -0.39199829
-11.125 0.375 0.45199966
-11.15625 0.40625 0.3409996
-10.015625 0 -0.45000076
-11.125 0.375 0.39300156
-10.015625 0 -0.40499878
-11.125 0.34375 0.44100189
-11.125 0.375 0.3390007
-10.015625 0 -0.4640007
-11.125 0.375 0.38399887
-11.125 0.34375 0.43799973
-10.046875 0 -0.47599792
-11.15625 0.375 0.37900162
-11.125 0.3125 0.43300247
-10.015625 0 -0.53300095
-11.078125 0.3125 0.34199905
-10.046875 0 -0.48799896
-11.125 0.3125 0.42499924
-10.015625 0 -0.54700089
-10.015625 0 -0.60300064
-10.90625 0.1875 0.33100128
-10 0 -0.6609993
-10.046875 0 -0.61800003
-11.046875 0.25 0.33399963
-10.015625 0 -0.67499924
-10 0 -0.72999954
-10.046875 0 -0.68799973
-10.015625 0 -0.74399948
-10.015625 0 -0.80199814
-10.015625 0.03125 -0.89299774
-10.015625 0 -0.84499741
-10 0.03125 -0.95199966
-10.015625 0 -0.90599823
-10 0.03125 -1.0109978
-9.796875 0.4375 -2.6969986
-10.015625 0 -0.96699905
-9.796875 0.40625 -2.6520004
-9.984375 0.03125 -1.072998
-9.765625 0.4375 -2.7589989
-10.015625 0 -1.0289993
-9.796875 0.4375 -2.7159996
-10 0.03125 -1.1349983
-9.828125 0.40625 -2.6709976
-10 0 -1.0890007
-9.796875 0.4375 -2.7789993
-9.984375 0.03125 -1.1940002
-9.796875 0.40625 -2.7350006
-10 0 -1.1499977
-9.828125 0.40625 -2.6909981
-9.984375 0.03125 -1.2579994
-9.84375 0.375 -2.6459999
-9.828125 0.40625 -2.7989998
-10 0 -1.2129974
-9.828125 0.40625 -2.7550011
-9.984375 0.03125 -1.3219986
-9.8125 0.375 -2.7109985
-10 0 -1.276001
-9.84375 0.34375 -2.6669998
-10 0.03125 -1.3849983
-9.8125 0.375 -2.776001
-10 0 -1.3390007
-9.84375 0.34375 -2.7319984
-9.984375 0.03125 -1.4469986
-9.859375 0.34375 -2.6879997
-9.953125 0.03125 -1.5519981
-9.859375 0.3125 -2.6419983
-9.84375 0.34375 -2.7970009
-9.984375 0.03125 -1.5099983
-9.859375 0.34375 -2.7519989
-9.953125 0.03125 -1.6170006
-9.859375 0.3125 -2.7080002
-9.984375 0.03125 -1.572998
-9.875 0.28125 -2.6639977
-9.84375 0.3125 -2.8169975
-9.984375 0.03125 -1.6839981
-9.859375 0.28125 -2.7729988
-10 0.03125 -1.6389999
-9.875 0.28125 -2.7290001
-9.984375 0.03125 -1.7480011
-9.875 0.25 -2.6839981
-9.875 0.3125 -2.8400002
-10 0 -1.7029991
-9.953125 0.03125 -1.8579979
-9.875 0.28125 -2.7949982
-9.984375 0.03125 -1.8120003
-9.875 0.25 -2.75
-9.96875 0.03125 -1.9249992
-9.875 0.21875 -2.704998
-9.984375 0 -1.8789978
-9.90625 0.21875 -2.6619987
-9.875 0.25 -2.8159981
-9.96875 0.03125 -1.9889984
-9.890625 0.21875 -2.7729988
-9.984375 0 -1.9449997
-9.953125 0.03125 -2.098999
-9.90625 0.21875 -2.7280006
-9.984375 0.03125 -2.0559998
-9.9375 0.1875 -2.6829987
-9.890625 0.21875 -2.8390007
-9.953125 0.03125 -2.1650009
-9.9375 0.15625 -2.6380005
-9.90625 0.21875 -2.7949982
-9.984375 0.03125 -2.1209984
-9.9375 0.1875 -2.75
-9.96875 0.03125 -2.2329979
-9.90625 0.125 -2.7039986
-9.953125 0.03125 -2.343998
-9.953125 0.125 -2.6599998
-9.90625 0.15625 -2.8159981
-9.96875 0.03125 -2.2999992
-9.953125 0.15625 -2.7729988
-9.953125 0.03125 -2.4109993
-9.953125 0.125 -2.7280006
-9.984375 0.03125 -2.368
-9.96875 0.09375 -2.6839981
-9.953125 0.03125 -2.4799995
-9.984375 0.09375 -2.6399994
-9.953125 0.125 -2.7970009
-9.953125 0.03125 -2.5929985
-9.96875 0.09375 -2.7529984
-9.96875 0.03125 -2.5489998
-9.984375 0.09375 -2.7089996
-9.984375 0.0625 -2.6639977
-9.96875 0.03125 -2.618
-9.96875 0.0625 -2.7770004
-9.984375 0.03125 -2.7340012
-9.96875 0.03125 -2.8029976
-9.921875 0.0625 -2.9630013
-9.953125 0.03125 -2.9199982
-9.90625 0.0625 -3.0779991
-9.921875 0.03125 -3.0349998
-9.953125 0.03125 -2.9899979
-9.90625 0.0625 -3.151001
-9.96875 0 -2.947998
-9.953125 0.03125 -3.1069984
-9.96875 0.03125 -3.0629997
-9.9375 -0.03125 -3.0200005
-9.953125 0.03125 -3.1790009
-9.90625 0.0625 -3.3390007
-10.015625 -0.0625 -2.8169975
-9.953125 0 -3.1359978
-9.921875 0.03125 -3.2959976
-9.921875 -0.03125 -3.0909996
-9.953125 0.03125 -3.2519989
-9.90625 0.0625 -3.4119987
-9.9375 -0.03125 -3.2080002
-9.953125 0.03125 -3.3689995
-9.875 0.0625 -3.5289993
-9.953125 0 -3.3250008
-9.921875 0.03125 -3.4850006
-10.0625 -0.125 -2.8009987
-9.921875 -0.03125 -3.2819977
-9.921875 0 -3.4419975
-9.890625 0.03125 -3.6030006
-9.953125 0 -3.3989983
-9.921875 0.03125 -3.5599976
-9.875 0.0625 -3.7210007
-9.953125 0 -3.5169983
-9.90625 0.03125 -3.6779976
-10.078125 -0.15625 -2.8310013
-9.921875 -0.03125 -3.473999
-9.921875 0.03125 -3.6349983
-9.953125 0 -3.5919991
-9.921875 0.03125 -3.7529984
-9.859375 0.0625 -3.9160004
-9.921875 0 -3.7099991
-9.890625 0.03125 -3.8719978
-9.921875 -0.03125 -3.6669998
-9.921875 0.03125 -3.8279991
-10.109375 -0.21875 -2.8159981
-9.90625 0 -3.7859993
-9.90625 0.03125 -3.9469986
-9.859375 0.0625 -4.112999
-9.90625 0 -3.9039993
-9.890625 0.03125 -4.0669975
-9.90625 -0.03125 -3.8619995
-9.921875 0.03125 -4.0249977
-9.875 0.0625 -4.1879997
-9.90625 0 -3.9819984
-9.90625 0.03125 -4.144001
-9.859375 0.0625 -4.3089981
-10.171875 -0.28125 -2.8009987
-9.90625 0 -4.1009979
-9.890625 0.03125 -4.2630005
-9.828125 0.0625 -4.4290009
-9.890625 -0.03125 -4.0579987
-9.890625 0 -4.2200012
-9.84375 0.03125 -4.3839989
-9.90625 0 -4.1759987
-9.90625 0.03125 -4.3380013
-9.859375 0.0625 -4.5039978
-9.890625 0 -4.2959976
-9.890625 0.03125 -4.4589996
-9.8125 0.0625 -4.6259995
-9.890625 -0.03125 -4.2529984
-9.890625 0 -4.4150009
-9.84375 0.03125 -4.579998
-9.890625 0.03125 -4.5349998
-9.859375 0.0625 -4.7010002
-9.875 0.03125 -4.6569977
-9.828125 0.0625 -4.8239975
-9.84375 0.03125 -4.7779999
-9.828125 0.0625 -4.8999977
